:FileType	xyz ASCII EnSim 1.0
:WrittenBy	ChEsher 1.0
:EndHeader
679305.112 180389.846 3.438252
682813.468 180150.997 4.763491
682814.087 180150.507 4.765246
682814.705 180150.018 4.767001
678664.947 180286.886 1.94767
682815.45 180149.524 4.486502
682816.514 180148.785 3.427668
682817.577 180148.047 2.368834
682818.641 180147.308 1.31
682814.384 180152.278 4.738742
682815.299 180153.56 4.713992
682815.152 180153.916 4.733004
676741.724 180066.349 0.828494
678665.297 180285.826 1.89478
676739.835 180066.989 1.332654
679313.769 180376.551 3.685778
679311.402 180375.975 3.689186
688747.914 184225.623 2.300359
681912.721 179106.517 3.789996
686978.52 181207.914 0.862997
675336.579 178736.582 2.971837
675337.477 178737.779 2.972138
686979.017 181210.873 0.377569
686978.841 181212.452 0.00999999999999
686978.624 181214.092 0.00999999999999
678837.516 179916.676 3.266418
678836.909 179917.121 3.241039
678836.302 179917.566 3.215661
678835.696 179918.011 3.190282
688898.847 183919.611 1.87472
678841.076 179922.332 3.316011
678840.478 179921.581 3.354294
678839.888 179920.826 3.407647
678839.339 179918.821 3.525362
678839.3 179920.07 3.474287
688772.131 184229.072 4.982116
675329.092 178735.688 2.803004
675330.043 178736.909 2.802926
678838.75 179918.079 3.540876
678838.142 179917.357 3.468608
675327.839 178737.032 2.747004
675327.106 178737.716 1.708507
689940.403 179845.461 1.4
675326.373 178738.4 0.500009
688767.575 184240.733 4.88151
688768.719 184241.514 4.726008
689940.836 179842.778 1.6
688768.486 184239.471 4.898009
689941.904 179844.526 1.4
688896.571 183923.066 2.173016
688770.31 184236.948 4.931006
688769.976 184234.917 5.027008
688771.221 184235.686 4.947505
688770.862 184233.659 5.029506
688771.749 184232.4 5.032005
688772.635 184231.141 5.034503
678849.551 179932.276 0.22071
688702.798 184351.374 3.709882
688703.147 184350.392 3.714104
688898.089 183922.577 2.002347
688703.718 184350.706 3.234011
689936.485 179839.034 1.736251
686970.583 181210.857 4.23464
689929.465 179829.206 1.87
689937.197 179840.203 1.664377
689930.209 179830.428 1.885
678849.198 179931.805 0.478502
682799.953 180156.652 4.928134
688702.756 184353.698 3.240603
688703.077 184352.7 3.238406
688703.397 184351.703 3.236208
688702.799 184356.054 2.509005
688702.849 184354.914 2.815902
688703.262 184355.133 2.389004
688703.24 184353.955 2.754803
688528.89 182641.133 5.151184
690097.761 179578.855 5.347123
690098.76 179578.76 5.358122
690099.76 179578.664 5.369121
678845.784 179930.942 1.930648
678845.287 179931.473 1.926399
678845.746 179929.816 2.86515
678845.537 179930.661 2.353336
678845.289 179930.379 2.776023
678845.197 179929.028 2.962788
678844.637 179928.239 3.033824
678844.069 179927.454 3.08956
678843.492 179926.673 3.131806
678842.905 179925.899 3.167175
678842.305 179925.134 3.200353
679336.071 180272.112 2.413047
679335.168 180272.05 2.383006
684586.044 180673.927 5.227008
684587.22 180673.943 5.172577
684588.396 180673.959 5.118146
684589.58 180678.221 5.369742
684589.589 180676.806 5.157394
684589.587 180675.39 5.095801
684589.572 180673.974 5.063714
684590.793 180679.679 5.487466
684590.797 180678.258 5.380842
679333.043 180272.899 2.411353
684592.031 180679.725 5.502214
679334.847 180273.01 2.434869
684594.489 180685.647 5.69178
684594.402 180684.219 5.690288
686632.727 180251.084 1.241382
688905.287 183918.903 1.160998
688905.619 183918.795 0.473195
688905.604 183917.441 0.062999
688905.995 183918.67 0.037502
688902.641 183921.107 1.490337
688904.159 183920.618 1.319668
688905.676 183920.128 1.148998
688903.024 183922.334 1.474405
688900.347 183924.545 1.766158
688901.874 183924.054 1.605868
675971.825 179408.353 0.96
686633.366 180251.522 1.205176
688534.007 182640.345 4.954158
673270.294 178530.169 0.827328
685616.88 180446.075 3.816745
690973.359 179287.284 5.390211
688902.37 183925.165 1.513938
685623.58 180440.44 4.26
685622.542 180439.618 3.753361
690973.289 179289.455 5.254166
690999.315 179276.593 5.583363
690976.012 179282.628 5.572206
690982.191 179279.789 5.58201
690990.714 179279.671 5.479238
690982.164 179281.129 5.526359
690982.111 179282.55 5.499722
690993.661 179279.655 5.435462
690982.084 179283.461 5.486404
690981.982 179285.137 5.447119
690981.894 179287.347 5.350043
676745.192 180066.758 0.907504
676746.926 180066.962 0.947009
676741.571 180067.324 1.366867
676743.308 180067.659 1.40108
676739.68 180067.832 1.79632
676741.419 180068.298 1.82524
679336.975 180272.175 2.443088
676739.525 180068.676 2.159985
675336.191 178739.043 2.915639
679336.651 180273.121 2.458384
678841.697 179924.376 3.235121
678841.086 179923.621 3.272317
675332.897 178740.574 2.802694
675328.797 178738.25 2.746831
675329.754 178739.469 2.746658
675330.712 178740.687 2.746485
675331.669 178741.905 2.746313
675328.023 178739.005 1.709694
675327.25 178739.76 0.502557
675325.884 178739.123 0.250497
675325.394 178739.847 0.000984999999957
675326.76 178740.422 0.259637
678836.823 179920.803 3.601401
678837.445 179921.572 3.47381
678836.253 179918.762 3.485941
678836.842 179919.536 3.622653
673271.132 178530.516 0.537156
679330.338 180272.733 2.376081
676910.142 180066.315 2.656994
679331.239 180272.789 2.387838
689905.992 179788.487 2.550007
689905.71 179788.004 1.76
689906.451 179789.27 2.822241
689906.912 179790.057 3.081349
689907.37 179790.858 3.279988
689907.743 179791.504 4.210011
689908.317 179792.501 4.517437
689908.072 179794.008 4.700029
689908.905 179793.521 4.705158
689908.676 179795.034 4.786658
689909.752 179798.562 4.7
679309.034 180375.4 3.692593
679308.507 180378.24 3.766928
679308.297 180381.13 3.797769
679308.084 180384.02 3.839798
679307.838 180386.908 3.893965
679307.58 180389.795 3.953376
679307.471 180390.594 3.482536
679307.348 180391.441 2.945831
679304.865 180391.2 2.227007
679307.223 180392.287 2.407671
679333.945 180272.955 2.423111
689052.139 181674.0 4.33873
689053.375 181674.813 4.363651
689054.617 181675.617 4.379975
689051.668 181672.032 4.364103
689052.908 181672.858 4.376745
689051.956 181669.182 4.36
689052.428 181670.888 4.404397
689053.188 181669.743 4.444691
689052.597 181668.184 4.36
689053.948 181668.598 4.484985
679313.478 180379.421 3.743053
679310.993 180378.831 3.75499
682819.543 180148.553 1.295504
682815.034 180151.74 4.752871
682815.684 180151.203 4.767001
682816.068 180150.96 4.627626
682816.452 180150.717 4.488251
682817.483 180149.995 3.424002
682818.513 180149.274 2.359753
682815.981 180152.974 4.740496
688777.324 184235.519 3.453997
687930.179 182296.702 5.30537
688539.142 182639.585 1.883496
687932.708 182297.879 5.378103
688877.209 183926.551 5.232096
688878.764 183926.05 5.239127
688880.32 183925.549 5.258366
688881.875 183925.049 5.294197
688877.45 183927.829 5.228825
688876.103 183929.616 5.234531
688877.691 183929.107 5.225553
688876.328 183930.899 5.231714
688876.553 183932.182 5.228898
679332.108 180281.65 2.395861
689941.51 179845.577 1.4
689942.26 179845.108 1.4
686307.998 181069.499 2.014214
678664.721 180287.504 1.338505
678666.615 180288.274 1.367007
678662.828 180286.734 1.310004
678660.934 180285.965 1.281502
688323.578 185341.858 0.211013
688322.568 185342.499 0.198012
688321.557 185343.14 0.185012
679336.326 180274.067 2.469522
679335.749 180273.066 2.446626
679335.424 180274.018 2.477333
679330.013 180273.726 2.524196
686969.159 181915.581 2.291433
679330.915 180273.775 2.516385
686973.847 181914.711 2.340474
679331.817 180273.824 2.508575
679332.719 180273.872 2.500764
679333.621 180273.921 2.492954
679334.522 180273.969 2.485143
686969.256 181916.257 1.791276
686972.11 181919.803 1.015431
684585.928 180672.818 4.376102
684585.796 180671.283 3.293577
684587.118 180672.759 4.319253
684588.308 180672.701 4.262405
684589.498 180672.642 4.205556
684590.789 180676.836 5.156854
684590.773 180675.413 5.074974
684590.748 180673.99 5.009283
684590.687 180672.584 4.148707
684592.014 180678.295 5.391942
684591.989 180676.866 5.156314
690098.619 179579.999 5.303351
690099.62 179579.906 5.301606
686309.455 181070.961 1.370233
690097.48 179581.302 5.052111
690097.344 179582.478 4.662631
690098.482 179581.207 5.029495
676745.044 180067.994 1.435293
676746.78 180068.329 1.469505
676743.157 180068.764 1.854161
676744.896 180069.231 1.883081
676741.266 180069.273 2.183613
676743.007 180069.87 2.207242
688771.239 184230.309 4.986344
676739.416 180070.012 2.251489
676741.164 180070.464 2.270135
675971.076 179407.232 1.551665
675971.405 179406.608 1.858336
675971.733 179405.984 2.165007
675329.858 178741.584 1.712069
675972.172 179407.754 1.556667
674558.589 177994.219 0.577836
674559.374 177994.678 1.468874
675327.637 178741.721 0.268777
674560.829 177995.576 1.469249
675326.271 178741.084 0.016717
675327.147 178742.321 0.032449
674562.284 177996.474 1.469625
674563.086 177996.905 1.26917
679335.902 180269.586 2.077346
688081.95 182390.933 5.569565
673265.431 178522.155 3.628718
685615.978 180445.145 3.369495
685617.009 180444.095 3.248711
685619.318 180441.599 3.300774
685621.504 180438.796 3.246722
686979.265 181212.352 0.134855
675974.793 179399.816 2.042001
686979.514 181213.831 0.00999999999999
678845.059 179931.207 2.306648
678844.698 179929.608 2.907315
678844.832 179930.941 2.686897
678844.199 179930.189 2.851842
678844.105 179928.83 2.99856
678843.511 179928.049 3.066734
678842.914 179927.267 3.114575
678842.315 179926.487 3.152072
678841.709 179925.711 3.186453
678841.099 179924.939 3.223203
678840.488 179924.168 3.263357
678839.879 179923.395 3.303121
675975.388 179400.075 2.044618
678781.065 180139.674 0.95869
675974.196 179403.894 2.321943
678782.776 180140.179 0.982677
678779.353 180139.168 0.934703
675975.084 179402.118 2.423238
678784.488 180140.685 1.006664
674548.641 178015.293 0.039989
674547.492 178014.577 0.039989
674549.79 178016.008 0.039989
674546.343 178013.862 0.039989
674550.939 178016.723 0.039989
675970.748 179407.856 0.954994
675971.287 179408.105 0.957497
688903.4 183923.562 1.445578
688773.521 184229.883 5.037002
688769.656 184240.25 4.756506
688770.05 184240.488 4.442995
688770.593 184238.985 4.787005
688771.529 184237.721 4.817503
688772.466 184236.456 4.848002
688772.133 184234.425 4.964003
688773.403 184235.192 4.8785
688773.044 184233.164 4.980502
688773.955 184231.902 4.997
688774.867 184230.641 5.013499
685618.362 180444.456 3.755687
688704.415 184351.078 2.571505
688704.023 184352.037 2.632604
685620.483 180442.113 3.781053
690964.881 179291.524 5.282956
679310.49 180384.591 3.848701
679310.222 180387.47 3.904422
679309.948 180390.349 3.962766
679309.831 180391.341 3.526819
679309.706 180392.358 3.057941
679309.582 180393.374 2.588335
684591.464 180697.662 0.292854
689049.511 181672.306 4.36
679313.187 180382.292 3.800329
678838.061 179922.351 3.390372
678838.672 179923.138 3.340784
678837.452 179920.307 3.582391
678838.063 179921.071 3.473969
678838.67 179921.843 3.39613
688336.477 185363.026 5.004005
688334.721 185362.517 5.136005
688335.26 185363.399 4.877006
688333.652 185363.144 5.006
690994.707 179281.022 5.410853
688704.789 184357.119 1.423006
688705.829 184358.162 0.880007
688703.632 184352.996 2.693704
690990.442 179285.317 5.419712
688703.724 184354.212 2.269003
682820.446 180149.798 1.281008
682819.449 180150.502 2.350672
682816.663 180152.388 4.767001
682817.059 180152.149 4.628501
682817.454 180151.909 4.49
682818.451 180151.205 3.420336
679331.225 180269.743 1.853066
689050.026 181666.053 4.810676
676746.634 180069.697 1.912002
676744.747 180070.467 2.23087
686970.529 181907.835 0.989168
676742.911 180070.915 2.288782
676744.658 180071.367 2.307428
686970.779 181909.388 1.141819
676739.308 180071.348 2.342993
676741.062 180071.654 2.356657
676742.816 180071.96 2.370322
675329.881 178743.842 0.510201
675328.514 178743.02 0.277917
675328.024 178743.559 0.04818
679335.997 180275.011 2.47337
679335.095 180274.969 2.500113
679334.193 180274.927 2.526856
690100.396 179573.183 2.380827
679329.685 180274.72 2.660572
679330.587 180274.761 2.633829
679331.488 180274.803 2.607086
679332.39 180274.844 2.580343
679333.292 180274.886 2.553599
684585.693 180669.702 2.207738
684587.003 180671.235 3.280634
684586.911 180669.674 2.225364
684588.21 180671.188 3.267691
684589.416 180671.14 3.254749
684590.623 180671.092 3.241806
684591.959 180675.436 5.054147
684591.924 180674.006 4.954852
684591.877 180672.525 4.091858
684591.83 180671.044 3.228863
678834.576 179916.545 1.51688
688676.839 184342.204 0.152987
678834.837 179915.789 1.069847
673261.42 178511.662 0.02
675972.171 179405.111 2.215005
675972.61 179404.237 2.265003
675973.048 179403.364 2.315001
675971.961 179406.882 1.860835
675972.299 179406.271 2.167504
675972.74 179405.39 2.217826
675972.518 179407.156 1.863333
688678.434 184341.868 0.773174
688496.612 182647.434 3.138513
678664.509 180288.174 0.784014
678666.397 180288.863 0.784014
678662.62 180287.486 0.784014
689913.115 179802.407 4.57373
678660.732 180286.797 0.784014
690097.208 179583.663 4.298225
690097.071 179584.858 3.971061
690098.349 179582.384 4.632377
690098.214 179583.57 4.260622
690099.353 179582.29 4.602122
689913.844 179805.281 4.482972
676907.419 180063.347 2.491329
678839.274 179922.619 3.345287
688906.01 183920.023 0.473995
688906.385 183919.899 0.012005
688904.544 183921.844 1.305702
688906.064 183921.354 1.136998
688906.401 183921.25 0.474795
688904.927 183923.071 1.285289
688903.685 183924.464 1.389283
688905.908 183923.727 1.194652
686971.621 181915.87 1.778516
686973.987 181915.483 1.765756
686976.353 181915.095 1.752995
686971.74 181916.592 1.241079
686974.471 181919.489 0.942716
686974.299 181917.872 1.066876
686976.832 181919.175 0.87
686974.127 181916.254 1.191037
676743.458 180066.553 0.867999
685615.704 180445.199 3.365009
685615.783 180445.042 3.440021
685616.708 180443.858 3.3
685618.924 180441.265 3.4
685621.125 180438.502 3.301593
685621.585 180437.915 3.232654
688330.586 185353.354 5.199103
688327.578 185350.755 4.927999
688519.871 182649.905 5.017006
688525.158 182649.061 5.013436
689906.616 179787.464 1.76
689907.523 179786.923 1.76
689906.88 179787.943 2.550007
689907.332 179788.733 2.836694
689907.784 179789.529 3.103693
678843.573 179929.42 2.963295
689908.609 179791.005 4.210011
689909.164 179792.009 4.523571
678842.953 179928.644 3.043908
678842.337 179927.861 3.097344
678841.724 179927.075 3.136969
678841.112 179926.289 3.172552
678840.501 179925.502 3.211285
678839.89 179924.715 3.254397
678839.281 179923.926 3.296676
689910.683 179796.62 4.75618
689911.275 179797.653 4.7
689911.661 179798.313 4.6
678779.044 180140.177 1.455455
688680.622 184343.04 1.942346
678776.117 180150.051 2.134171
688526.98 182648.751 5.014331
688883.43 183924.551 5.361586
688879.021 183927.323 5.235592
688880.593 183926.816 5.254719
688882.164 183926.311 5.290631
688883.735 183925.808 5.35845
688879.279 183928.595 5.232057
688877.932 183930.384 5.222281
688879.536 183929.868 5.228522
688878.173 183931.662 5.21901
679312.897 180385.162 3.857604
681902.312 179115.688 1.399896
679312.315 180390.903 3.972155
676746.405 180071.818 2.326074
679312.065 180393.275 3.170051
688495.106 182653.79 3.103277
676746.323 180072.573 2.39765
676739.16 180071.869 2.109303
676740.939 180072.174 2.113827
676742.718 180072.479 2.118351
676744.497 180072.783 2.122875
689055.401 181674.489 4.4136
689056.64 181675.315 4.462643
689053.678 181671.716 4.41476
689054.931 181672.54 4.43443
689054.448 181670.574 4.452774
689055.218 181669.432 4.490789
675329.391 178744.319 0.287057
675328.901 178744.796 0.063912
688493.877 182653.981 2.607999
688494.303 182652.382 2.533663
688494.729 182650.783 2.459328
688495.155 182649.183 2.384992
688495.581 182647.584 2.310656
688496.007 182645.985 2.236321
688496.433 182644.386 2.161985
688093.509 182380.848 5.364621
686947.075 181213.473 0.724996
686947.31 181214.948 0.732496
678835.574 179916.695 2.333191
679335.658 180275.951 2.467232
679334.758 180275.918 2.509966
679333.858 180275.884 2.552701
679332.958 180275.851 2.595436
679329.358 180275.717 2.766376
679330.258 180275.751 2.723641
674557.835 177995.449 0.833255
674558.454 177995.793 2.169437
674560.077 177996.795 2.169625
674561.7 177997.797 2.169812
674557.081 177996.679 1.088675
674562.344 177998.099 1.868756
688508.885 182642.58 5.106101
688509.383 182650.049 6.048607
684585.627 180668.063 1.282499
684586.849 180668.067 1.312574
684588.129 180669.646 2.24299
684588.071 180668.071 1.342649
684589.347 180669.619 2.260617
684590.565 180669.591 2.278243
684591.783 180669.564 2.295869
678775.298 180159.256 0.858312
685637.875 180461.721 4.48302
688901.873 183918.644 1.523859
688763.843 184224.116 4.619734
690973.151 179293.803 5.016007
678836.206 179920.022 3.649912
675973.487 179402.491 2.364999
675973.925 179401.617 2.414997
675974.364 179400.744 2.464995
675973.181 179404.509 2.268149
675973.622 179403.629 2.318472
675974.063 179402.748 2.368795
675972.865 179406.557 2.17
675973.309 179405.669 2.220648
675973.752 179404.782 2.271295
688899.229 183920.859 1.853198
688761.986 184226.342 4.607075
674548.007 178013.656 0.464354
674550.352 178015.069 0.468418
674546.82 178013.01 0.462322
674551.525 178015.776 0.470449
687686.652 185599.322 0.01
688757.078 184225.177 3.59075
690993.688 179282.362 5.413532
690096.644 179588.554 3.662326
686973.062 181211.898 3.441976
678775.417 180158.598 1.175288
688324.112 185342.738 0.647763
688323.153 185343.469 0.689511
688322.195 185344.2 0.731259
690096.928 179586.081 3.784191
690096.784 179587.316 3.689035
690098.078 179584.768 3.936023
690097.938 179585.995 3.750228
690099.22 179583.476 4.223018
690099.085 179584.678 3.900985
688772.537 184239.591 3.942004
688772.035 184238.015 4.452997
688773.027 184236.779 4.457999
688774.02 184235.543 4.463
686304.216 181076.725 1.599901
688775.013 184234.307 4.468001
688775.276 184232.662 4.939498
688776.213 184231.398 4.969996
674561.602 177999.293 2.468341
688705.112 184351.449 1.908999
688704.649 184352.37 2.029
674556.847 177997.153 2.181336
689909.475 179790.506 4.210011
678777.481 180145.359 1.865188
676746.275 180073.088 2.127398
688705.285 184356.217 1.350943
688705.784 184357.651 0.880007
676739.121 180072.369 1.826996
676740.898 180072.678 1.834534
676742.675 180072.986 1.842072
676744.451 180073.295 1.849609
676746.228 180073.603 1.857147
688706.276 184354.413 1.206818
688705.742 184352.961 1.706949
685615.483 180444.91 3.510547
685613.064 180442.788 2.823004
685610.539 180440.639 2.135461
685616.407 180443.622 3.3
685618.529 180440.931 3.5
687939.816 182286.478 1.064993
687938.606 182285.94 1.066122
687937.395 182285.401 1.067251
674561.09 178000.105 2.948009
686971.088 181213.834 4.387991
681715.172 178629.759 1.613297
681714.448 178629.63 1.439927
679331.158 180275.784 2.680906
681715.775 178629.905 1.449937
678775.87 180157.163 2.983566
686976.513 181915.915 1.140996
684587.289 180686.522 5.727136
686976.672 181917.545 1.005498
678781.508 180150.871 2.192819
684587.112 180685.132 5.733689
687924.245 182308.078 5.445141
684589.066 180697.575 0.144929
687925.933 182308.569 5.422682
687927.62 182309.06 5.400222
687935.175 182297.364 5.225648
687928.759 182309.571 5.321914
687931.059 182314.434 5.161824
679335.319 180276.892 2.458156
686960.891 181217.138 4.314586
686962.925 181216.77 4.305488
679334.422 180276.867 2.509215
679333.525 180276.843 2.560273
679332.628 180276.819 2.611332
679331.731 180276.794 2.66239
681903.497 179117.715 1.429712
681904.755 179115.583 2.729761
679329.937 180276.746 2.764507
681904.187 179112.538 3.005975
681905.33 179114.607 3.032129
681904.423 179119.265 1.466364
678782.788 180146.433 1.914714
684590.017 180689.5 5.423498
684585.594 180666.382 0.436458
689910.147 179799.217 4.599618
684586.813 180666.426 0.463142
684588.032 180666.47 0.489827
684589.292 180668.075 1.372724
684589.251 180666.514 0.516511
684590.514 180668.079 1.402799
684591.736 180668.083 1.432874
685614.057 180441.315 2.668816
689909.287 179796.06 4.790088
686976.382 181208.203 1.458384
686978.769 181209.393 0.620283
685611.707 180439.008 2.037633
689909.9 179797.085 4.756767
685609.356 180436.702 1.406449
682768.739 180125.993 2.036499
689910.514 179798.108 4.7
685616.092 180438.742 2.843066
685618.204 180436.142 2.742487
675968.389 179412.542 0.110623
679331.212 180281.642 2.283483
679334.052 180282.72 2.104699
679330.316 180281.634 2.171105
687939.442 182287.577 1.887496
687938.244 182286.979 1.788384
687937.046 182286.38 1.689273
687936.184 182284.863 1.06838
687935.848 182285.782 1.590161
678777.914 180150.324 2.15372
673263.927 178519.223 3.531805
679333.158 180282.438 2.663147
687934.974 182284.325 1.069509
688281.643 183831.378 4.195
682795.431 180159.782 1.707003
682796.313 180158.993 2.084994
688685.399 184343.259 3.843347
673270.968 178528.984 1.117499
682795.417 180161.8 1.280756
679334.093 180282.518 2.96
686947.544 181216.423 0.739996
686947.603 181213.388 0.685364
686947.826 181214.87 0.611547
686948.05 181216.351 0.53773
686947.779 181217.898 0.747495
675974.64 179403.006 2.372591
686948.014 181219.373 0.754995
682799.737 180156.391 4.82001
688499.2 182653.148 5.06714
688496.595 182652.029 3.807561
688495.482 182652.201 3.112077
688497.622 182651.869 4.659615
688499.566 182651.568 5.107394
688278.739 183839.302 4.231877
679332.224 180282.359 2.366294
682800.852 180157.933 4.915099
688336.831 185363.605 4.156002
688337.029 185363.908 3.753007
688335.85 185364.362 4.345501
688334.042 185363.771 4.750007
688334.869 185365.118 4.535
682802.651 180160.494 4.889029
679331.289 180282.279 2.069441
676739.095 180073.217 1.503995
676740.851 180073.468 1.479138
676742.606 180073.72 1.454282
676744.361 180073.973 1.429425
676746.116 180074.224 1.404568
690999.77 179262.923 6.066563
688497.365 182644.257 3.156114
688495.859 182650.612 3.120878
688496.235 182649.023 3.129713
689912.36 179802.862 4.574407
690096.504 179589.792 3.635132
690096.362 179591.024 3.577349
690097.656 179588.474 3.683792
690097.797 179587.233 3.659293
690097.516 179589.714 3.696969
688884.983 183924.058 5.484322
688886.468 183923.573 5.155595
688887.249 183923.325 4.621013
688885.305 183925.31 5.48224
688880.866 183928.083 5.251073
688882.454 183927.573 5.287065
688884.041 183927.065 5.355313
688885.627 183926.563 5.480158
688881.139 183929.351 5.247427
688879.793 183931.14 5.224987
688881.413 183930.618 5.243781
690999.695 179265.197 6.21228
688089.4 182384.53 5.661893
690098.948 179585.909 3.716266
690098.81 179587.15 3.62955
688906.775 183921.127 0.02
688906.453 183922.579 1.124999
688906.792 183922.478 0.475594
688907.166 183922.356 0.02
688906.674 183923.239 1.118999
688907.107 183923.479 0.9985
689907.768 179787.4 2.550007
674557.534 177996.908 2.87
674559.325 177998.014 2.87
674561.116 177999.12 2.87
689908.212 179788.196 2.851147
689908.657 179789.001 3.126036
689909.099 179789.831 3.279988
674557.265 177997.294 2.87
689910.011 179791.516 4.529705
689910.572 179792.547 4.715415
689911.138 179793.59 4.789427
689910.892 179795.113 4.789178
689911.694 179794.64 4.788723
689911.465 179796.156 4.755594
689912.39 179799.53 4.675892
689913.128 179800.745 4.671799
689913.87 179801.952 4.573052
689912.037 179797.199 4.7
689912.415 179797.858 4.6
689913.147 179799.073 4.676253
690964.79 179295.8 4.930005
690973.076 179295.972 4.852438
679334.089 180277.818 2.49975
690957.643 179299.488 3.994216
690964.75 179298.01 4.870007
685608.015 180438.489 1.447919
687939.068 182288.675 2.71
687937.883 182288.017 2.510647
687936.698 182287.359 2.311294
687935.512 182286.702 2.111941
687934.65 182285.184 1.491049
687934.327 182286.044 1.912588
678773.849 180157.547 2.092265
685615.662 180434.078 2.12851
678774.002 180156.991 3.01858
689039.773 181664.111 1.446243
688677.912 184342.777 0.705992
688676.375 184342.427 0.152987
688678.985 184343.35 1.258998
688680.057 184343.923 1.812003
688681.13 184344.496 2.365008
679334.982 180277.833 2.450493
688682.513 184345.231 3.122508
678775.524 180152.416 2.339661
688683.896 184345.966 3.880007
689057.068 181677.273 4.487745
688684.203 184346.133 3.880007
688685.618 184346.878 3.846697
689058.293 181678.102 4.536923
679333.197 180277.804 2.549007
679332.305 180277.789 2.598264
679331.412 180277.775 2.647521
674549.719 178013.432 0.892782
674548.523 178012.734 0.888718
674550.914 178014.13 0.896846
674547.327 178012.036 0.884654
674552.11 178014.828 0.90091
679329.627 180277.745 2.746035
688086.561 182383.477 5.652836
689057.874 181676.149 4.519138
684590.47 180666.558 0.543196
684591.689 180666.602 0.56988
689041.231 181665.075 2.714377
690991.2 179269.531 6.170338
689056.186 181673.36 4.447224
689057.435 181674.189 4.495588
676911.694 180066.133 1.698665
688085.354 182384.662 5.641957
689058.679 181675.024 4.550532
689055.709 181671.403 4.46982
676912.636 180065.37 1.7
674558.285 178002.165 3.359129
679330.52 180277.76 2.696778
689056.487 181670.267 4.505209
676913.348 180064.67 1.67497
679328.735 180277.731 2.795293
688772.491 184242.044 3.214883
681905.505 179117.632 2.711908
681906.321 179116.4 3.055017
681904.77 179111.56 3.287653
681905.938 179113.578 3.331476
681906.991 179115.388 3.38006
676739.07 180074.064 1.180994
681905.548 179110.254 3.658411
676742.537 180074.455 1.066492
676744.27 180074.651 1.009241
676746.004 180074.846 0.95199
688776.005 184233.07 4.473002
688776.792 184233.477 3.70899
688776.998 184231.834 4.478003
688706.23 184352.055 1.642185
674554.084 178001.476 3.582256
688686.604 184345.091 3.745255
687938.808 182289.375 2.707662
687938.457 182290.385 2.667705
673261.825 178512.39 0.35934
673260.928 178511.894 0.02
673261.313 178512.636 0.35934
673260.436 178512.127 0.02
687936.506 182287.844 2.514104
687935.291 182287.255 2.416891
687934.072 182286.682 2.319799
688706.774 184355.844 0.681203
688706.566 184356.904 0.000209999999981
688707.059 184356.001 0.07
673262.853 178515.602 1.812669
688707.268 184354.941 0.581802
688706.771 184353.511 1.134755
688707.763 184354.037 0.4824
688707.267 184352.609 1.062692
673262.262 178515.905 1.812669
687932.546 182286.666 2.687064
687933.52 182288.42 2.72435
687933.219 182289.555 2.721691
687933.09 182289.999 2.714188
687932.962 182290.443 2.706686
675975.221 179398.889 1.619007
675975.831 179399.162 1.619795
675975.527 179401.231 2.473886
675975.975 179400.315 2.047234
675976.423 179399.4 1.620583
688748.13 184217.486 1.034924
678835.624 179919.23 3.491718
686949.306 181213.147 1.908912
686949.615 181213.014 2.520686
686948.454 181213.268 1.297138
686951.046 181212.793 3.13246
686948.274 181217.833 0.463913
686948.701 181214.634 1.023924
686948.961 181216.332 1.055443
686949.221 181218.03 1.086963
686948.497 181219.314 0.390096
690095.946 179594.617 3.277462
690097.376 179590.948 3.55711
690097.236 179592.178 3.393653
690098.669 179588.393 3.675258
690098.528 179589.636 3.688806
690098.39 179590.871 3.536872
688324.645 185343.618 1.084514
688323.739 185344.439 1.18101
686949.502 181219.138 1.076837
686950.254 181219.013 1.534664
686950.508 181218.962 1.763577
688264.828 183849.069 1.091752
688750.365 184222.218 2.366801
688751.657 184223.046 2.912571
673269.626 178526.385 2.334006
688752.984 184223.894 3.229977
688753.138 184225.669 3.24097
673268.483 178524.301 3.371985
688753.995 184224.546 3.251964
688694.572 184350.52 3.659124
688266.585 183850.051 1.171052
688754.675 184227.863 3.478994
679334.653 180278.777 2.448695
679333.765 180278.772 2.488382
679332.878 180278.767 2.52807
685613.655 180436.553 2.186132
685611.218 180434.364 1.529198
685608.781 180432.175 0.872264
678774.727 180154.658 2.868406
685613.119 180432.013 1.514532
679334.342 180279.728 2.460856
679331.99 180278.762 2.567757
679331.102 180278.757 2.607444
679330.215 180278.752 2.647132
679329.327 180278.746 2.686819
679328.439 180278.741 2.726507
679328.151 180279.747 2.596852
688501.192 182652.839 5.26326
679327.872 180280.734 2.353096
688496.947 182650.447 3.857705
688497.979 182650.29 4.712313
688499.933 182649.987 5.147649
688501.939 182649.681 5.205432
687937.914 182291.691 2.521658
687937.562 182288.852 2.712195
687937.223 182289.893 2.681714
687936.885 182290.935 2.651233
687936.78 182291.157 2.609574
678779.115 180139.654 1.168666
687936.315 182288.329 2.716913
687935.069 182287.807 2.721842
687933.822 182287.286 2.72701
688498.357 182644.119 4.058326
688498.005 182645.701 4.008182
688497.3 182648.865 3.907895
688497.652 182647.283 3.958039
675334.124 178739.244 2.859075
687934.755 182288.911 2.710023
687934.441 182290.015 2.698205
687934.321 182290.385 2.679317
687934.2 182290.755 2.660429
687932.727 182291.421 3.320496
687933.949 182291.795 3.28909
687930.485 182291.767 4.096601
687932.492 182292.398 3.934306
688758.036 184223.865 3.450002
688757.84 184234.015 4.658158
690973.01 179298.19 4.760001
690964.725 179299.015 4.025006
690957.644 179300.433 3.190332
690964.7 179300.02 3.180005
690973.01 179299.16 3.965775
674559.062 177998.4 2.87
674560.858 177999.507 2.87
674561.285 177999.741 2.708175
688886.945 183924.773 5.206049
674556.584 177997.632 3.273998
674557.732 177998.247 3.192501
688888.189 183924.327 4.378002
688887.26 183926.031 5.208271
688882.743 183928.835 5.283498
688884.347 183928.323 5.352177
688885.948 183927.815 5.478076
688887.576 183927.289 5.210586
688883.032 183930.097 5.279932
673262.23 178513.117 0.722672
673261.698 178513.378 0.722672
673260.801 178512.883 0.35934
673261.166 178513.638 0.722672
686966.813 181916.02 2.266912
688744.478 184225.028 1.31286
688743.12 184224.136 1.002985
688745.801 184225.903 1.707091
686971.502 181915.147 2.315954
689915.322 179807.705 4.41448
689916.059 179808.915 4.316916
689916.797 179810.124 4.210114
689917.536 179811.331 4.09
686976.192 181914.275 2.364995
679334.953 180269.515 1.953761
679312.606 180388.033 3.91488
686969.552 181918.525 1.189633
686969.353 181916.931 1.29112
688680.446 184338.182 0.961997
688681.546 184338.772 1.592997
688679.283 184337.082 0.330996
687925.503 182324.077 3.121819
674550.257 178012.502 1.319179
674549.038 178011.812 1.313083
674551.477 178013.192 1.325275
674547.819 178011.123 1.306987
689913.858 179803.615 4.500596
688677.34 184341.282 0.188589
688679.528 184342.454 1.35776
688676.55 184342.048 0.06
681906.061 179109.392 3.61001
688681.716 184343.626 2.526931
688683.042 184344.369 3.129668
688684.367 184345.112 3.732405
689039.041 181665.237 1.510986
689039.296 181665.416 1.567993
689039.564 181665.591 2.144989
686971.925 181918.198 1.128255
688687.022 184347.641 3.786536
688684.669 184345.274 3.732394
688686.088 184346.016 3.710686
688687.498 184346.772 3.668248
678837.512 179917.825 3.474385
678836.883 179918.293 3.480163
674551.606 178010.34 3.01
678840.478 179922.863 3.309566
674549.804 178009.234 3.01
691007.834 179259.669 3.974449
678839.876 179922.1 3.349791
674553.407 178011.447 3.01
678839.279 179921.334 3.401889
678838.682 179920.571 3.474128
681908.299 179113.415 3.619989
681908.565 179113.215 3.77001
678838.081 179919.812 3.563381
675975.65 179397.961 0.906013
691007.94 179260.686 4.718905
675976.871 179398.484 0.903932
678837.478 179919.05 3.595394
687936.392 182292.543 3.224764
687935.989 182289.402 2.695816
687935.663 182290.475 2.674719
687935.55 182290.771 2.644446
687935.438 182291.067 2.614172
687935.17 182292.169 3.257103
689912.247 179795.692 4.755007
676740.803 180074.26 1.123743
689912.798 179796.744 4.7
689913.885 179800.288 4.671056
689914.626 179801.497 4.572375
689915.366 179802.708 4.500695
689913.169 179797.402 4.6
689913.904 179798.617 4.676614
689914.642 179799.832 4.670314
676904.53 180064.65 1.45599
676905.867 180063.056 1.096656
682764.231 180126.486 2.204014
687933.057 182300.296 5.332942
682765.548 180126.049 2.146671
687933.697 182292.836 3.917751
687934.903 182293.271 3.900034
687930.687 182292.793 4.625778
687932.258 182293.376 4.548116
687933.446 182293.876 4.546412
682766.864 180125.611 2.089329
687929.755 182293.283 5.147984
687930.889 182293.818 5.154955
684592.663 180697.705 0.366816
688773.445 184238.421 3.944252
674556.889 177999.548 3.31594
688774.032 184239.93 3.456011
688337.987 185365.485 2.511499
688336.098 185364.775 3.744004
688336.508 185365.439 2.70049
688335.167 185365.641 3.735001
688906.996 183923.132 0.475994
688774.855 184238.827 3.455507
690095.26 179596.21 3.187585
690095.812 179595.747 3.214924
690097.096 179593.417 3.34
690096.957 179594.624 3.272741
679333.458 180279.73 2.480284
679332.573 180279.733 2.499712
679331.689 180279.736 2.51914
688774.353 184237.251 3.946501
688775.261 184236.082 3.94875
679334.078 180280.69 2.50922
679333.191 180280.697 2.486916
679330.805 180279.739 2.538568
679329.92 180279.742 2.557996
679329.036 180279.745 2.577424
679328.758 180280.727 2.3754
679327.628 180281.61 1.833972
679328.524 180281.618 1.94635
686952.489 181212.394 4.356008
686954.435 181212.01 4.432907
679327.551 180281.961 0.882028
686949.664 181214.368 1.902151
686949.55 181214.393 1.4363
686949.798 181214.362 2.368002
686951.463 181214.103 3.01116
686953.114 181213.842 4.352006
686949.872 181216.314 1.573156
686950.169 181218.228 1.710012
689059.923 181675.86 4.595304
688773.64 184242.813 3.296365
688775.082 184243.712 3.236386
689058.23 181673.063 4.528532
689059.485 181673.899 4.581925
688774.658 184241.438 3.337704
689057.756 181671.102 4.514474
689059.025 181671.937 4.561477
688774.673 184240.409 3.393999
686952.204 181218.656 2.450318
688775.176 184239.067 3.422003
686950.265 181218.214 1.946005
686950.361 181218.2 2.181997
686952.034 181217.658 2.858338
688777.927 184235.356 3.280992
688779.051 184234.343 3.295748
688778.48 184232.444 3.228003
688780.08 184233.07 3.078996
685604.655 180432.088 0.144081
685606.345 180429.986 0.21533
685610.577 180429.949 0.900555
685608.034 180427.884 0.286578
686631.138 180246.861 0.873336
688536.444 182638.554 2.98097
688287.385 183816.766 1.642185
688288.994 183817.851 1.628887
688872.539 183928.039 5.335105
688874.096 183927.547 5.270203
673262.083 178514.119 1.086005
673261.531 178514.394 1.086005
688707.553 184355.099 0.07
688872.732 183929.333 5.334164
688708.046 184354.196 0.07
688708.258 184353.134 0.382998
688872.925 183930.627 5.333224
688708.72 184352.859 0.382998
688873.118 183931.921 5.332284
688865.469 183935.73 3.164012
688866.106 183935.525 3.330013
688863.911 183936.231 2.890629
679312.19 180392.089 3.571103
688866.744 183935.32 3.496013
688862.353 183936.732 2.617246
675328.94 178740.295 1.710882
688867.804 183934.984 3.890514
675971.624 179407.493 1.554166
688860.795 183937.234 2.343863
686304.639 181066.647 2.026857
675330.775 178742.873 1.713257
688868.863 183934.648 4.285015
686302.006 181067.8 1.465486
688859.237 183937.735 2.07048
687937.314 182294.14 3.862707
687936.108 182293.706 3.881613
675328.127 178741.121 0.505105
688869.467 183934.448 4.880001
686638.64 180254.343 2.160983
688857.679 183938.236 1.797097
686299.477 181072.597 1.47
686639.531 180255.075 0.934304
678848.65 179932.249 0.534009
687934.635 182294.374 4.542965
687935.825 182294.87 4.538461
687932.023 182294.354 5.161927
687933.194 182294.916 5.175073
687934.367 182295.476 5.185896
678848.844 179931.334 0.736295
687929.335 182294.698 5.208493
687930.534 182295.26 5.230162
687931.733 182295.822 5.251831
678781.241 180139.175 0.736273
678782.891 180139.668 0.771805
678779.592 180138.682 0.70074
678784.54 180140.161 0.807338
688503.186 182652.526 5.46433
688503.561 182650.951 5.685179
688503.936 182649.377 5.670722
688498.336 182648.71 4.765055
688500.3 182648.407 5.18793
688502.313 182648.103 5.176523
688504.311 182647.802 5.656268
674559.128 178000.825 3.194318
684588.259 180680.993 5.573728
676907.239 180061.374 0.737321
676908.61 180059.691 0.377987
676905.585 180064.399 2.020993
676906.643 180063.202 1.793993
676907.727 180061.904 1.566993
690973.036 179300.186 3.171548
690957.63 179301.642 2.443467
690964.673 179301.34 2.433342
674556.046 178000.85 3.439379
690972.998 179301.459 2.423295
687938.938 182289.025 2.708831
687938.107 182291.395 2.627747
687938.01 182291.543 2.574703
686634.782 180251.209 1.791562
688499.408 182643.972 4.923148
688499.05 182645.551 4.870451
687937.722 182288.435 2.611421
690950.837 179306.744 0.81001
688777.707 184237.31 3.413901
689059.515 181678.934 4.592347
689064.029 181681.942 4.44441
688073.242 182390.423 3.762
688857.951 183934.071 1.969556
684591.002 180686.782 5.717683
689072.703 181682.608 3.155745
681915.408 179101.148 1.833606
688290.603 183818.936 1.615589
688292.213 183820.02 1.602291
688293.822 183821.105 1.588993
688092.03 182376.191 3.706999
688286.627 183817.714 2.591816
688285.869 183818.663 3.571447
688288.314 183818.775 2.603737
681907.885 179106.589 4.740042
681906.441 179109.229 3.76
681907.419 179111.065 3.764608
674549.784 178010.735 1.980593
674552.161 178012.076 1.995793
679332.305 180280.703 2.464613
679331.418 180280.709 2.44231
679330.532 180280.715 2.420006
688325.179 185344.497 1.531264
688325.713 185345.377 1.978014
688326.442 185346.564 2.398004
688324.326 185345.409 1.682509
688323.472 185346.321 1.833754
688757.032 184217.913 3.19699
688757.926 184218.388 3.203501
679333.003 180281.659 2.508239
688758.82 184218.862 3.190012
679329.645 180280.721 2.397703
679329.42 180281.626 2.058727
679328.486 180282.041 1.178881
679329.42 180282.12 1.475734
673267.807 178524.633 3.371985
675975.923 179397.56 0.709999
675976.272 179396.855 0.55075
675976.62 179396.15 0.391502
675976.969 179395.444 0.232254
675976.49 179397.806 0.708837
675977.058 179398.052 0.707676
688741.744 184223.24 0.774008
688745.307 184223.911 1.326343
688743.955 184223.028 1.008268
688746.623 184224.776 1.72757
688742.584 184222.138 0.787008
688889.097 183922.744 3.78872
688887.848 183925.849 4.62701
688888.539 183925.553 4.293987
688889.312 183924.001 3.942501
688889.909 183925.171 3.682994
688751.373 184229.572 3.207987
688752.178 184230.108 3.227987
688886.27 183929.067 5.475994
688753.646 184231.109 3.404012
688888.446 183928.372 4.633007
689923.129 179813.768 3.893671
674554.927 178000.193 3.479503
673263.04 178514.572 1.449337
673262.468 178514.861 1.449337
673261.897 178515.15 1.449337
687937.015 182295.365 4.533231
688682.646 184339.361 2.223997
688683.746 184339.95 2.854998
688679.965 184339.117 0.948547
688681.086 184339.72 1.601699
688679.346 184337.593 0.330996
688678.845 184338.515 0.295394
688682.207 184340.322 2.254851
688678.548 184338.363 0.00400000000002
688677.05 184341.127 0.06
688678.959 184340.963 0.854106
688677.842 184340.36 0.224191
688680.076 184341.566 1.484021
688677.549 184340.206 0.06
688681.193 184342.169 2.113936
688682.31 184342.772 2.743851
688683.596 184343.479 3.259103
688684.883 184344.185 3.774355
688685.185 184344.345 3.774315
687925.923 182322.613 3.397441
688688.419 184348.415 3.709229
688689.838 184349.153 3.674502
688688.903 184347.538 3.612165
690991.095 179271.786 6.034062
688688.015 184345.847 3.702017
688689.422 184346.611 3.64874
690095.695 179596.736 3.160246
690095.524 179598.186 3.08
690999.469 179272.039 5.932913
690096.705 179596.823 3.150086
690097.969 179594.63 3.268021
690097.826 179595.912 3.196041
690097.715 179596.911 3.139926
687935.541 182296.033 5.19531
687936.715 182296.59 5.203756
687932.951 182296.398 5.276588
687934.063 182296.881 5.25147
690982.41 179274.092 5.846755
687928.915 182296.114 5.269003
688264.101 183850.864 0.708025
687931.444 182297.291 5.341736
688264.465 183849.966 0.914888
687926.343 182321.15 3.673063
689916.075 179807.254 4.415942
689916.812 179808.464 4.319166
689917.549 179809.674 4.211989
689918.285 179810.883 4.09
689917.949 179811.986 3.98
689918.662 179813.176 3.872262
689918.699 179811.534 3.98
689919.391 179814.363 3.857222
689920.117 179815.552 3.896938
689939.334 179843.708 1.6
689921.563 179817.922 4.115395
689922.287 179819.109 4.207422
689923.019 179820.304 4.248215
689923.758 179821.472 4.212491
689924.443 179822.639 3.889995
689924.743 179823.139 3.160015
689925.058 179823.644 2.530007
689925.373 179824.15 1.9
686957.463 181211.368 4.663605
686954.792 181213.585 4.297476
686955.132 181213.261 4.475759
686955.517 181213.456 4.481985
686957.669 181213.085 4.44665
686949.966 181216.299 1.924078
686950.06 181216.285 2.274999
686951.736 181215.883 2.934749
686953.739 181215.291 4.348004
686955.086 181215.08 4.254247
688077.146 182392.703 3.825843
689937.989 179838.12 1.727503
689926.485 179825.988 1.825
686954.989 181218.187 4.34
686954.364 181216.739 4.344002
675974.505 179401.868 2.419118
689915.351 179804.375 4.483132
689916.105 179803.922 4.483213
689916.09 179805.589 4.4688
689916.828 179806.802 4.417404
681908.857 179112.699 3.814657
676906.622 180064.261 2.585995
675974.946 179400.987 2.46944
676908.215 180062.434 2.396664
676909.012 180061.52 2.301998
687925.574 182328.309 2.616835
682798.876 180162.966 2.065207
679337.8 180269.727 2.324517
687926.383 182330.157 2.460623
688291.687 183820.896 2.627579
688293.374 183821.956 2.639499
682769.599 180126.932 2.235996
679336.851 180269.656 2.200932
688284.353 183820.619 3.757631
688287.633 183819.699 3.608587
688286.106 183821.697 3.782391
688289.397 183820.735 3.645727
688291.162 183821.771 3.682866
681907.718 179110.559 3.796255
682768.256 180127.332 2.048333
689915.381 179801.042 4.571697
689916.12 179802.255 4.500744
689916.858 179803.469 4.483293
684586.95 180682.337 5.666317
684588.376 180685.208 5.7436
688776.525 184244.611 3.196407
688776.148 184242.292 3.27789
688777.639 184243.147 3.238076
688775.672 184240.06 3.367656
688775.496 184239.306 3.388498
688777.212 184240.871 3.313212
688776.821 184236.861 3.415999
688776.319 184238.203 3.382998
688777.142 184237.1 3.377497
688777.644 184235.758 3.412996
688778.742 184235.948 3.428234
688779.814 184234.614 3.425341
688777.965 184235.997 3.371996
688781.002 184233.394 3.355009
679330.355 180282.2 1.772587
679333.052 180269.897 2.007372
684589.882 180688.103 5.628686
678773.663 180158.768 0.875209
678773.696 180158.103 1.16595
687936.287 182297.846 5.199342
687933.759 182298.287 5.317045
687934.809 182298.694 5.255987
687935.86 182299.102 5.194928
687928.831 182296.295 5.548086
687930.095 182296.883 5.498241
687931.359 182297.472 5.448395
687932.623 182298.06 5.39855
689040.031 181664.29 1.570992
689040.476 181666.191 2.709991
678776.732 180147.686 1.990379
689040.296 181664.465 2.187492
678778.236 180143.032 1.780069
674557.166 178001.508 3.399254
682813.096 180147.393 4.625002
674559.404 178002.822 3.319004
682813.446 180147.139 4.483004
682814.576 180146.365 3.435
674555.203 178002.152 3.562818
674556.323 178002.829 3.543379
689061.407 181679.655 4.62
689061.179 181676.678 4.641535
682815.706 180145.592 2.386996
689062.091 181678.7 4.62
689062.775 181677.745 4.62
689062.011 181675.55 4.666129
689062.657 181679.35 4.630508
689063.599 181679.985 4.654214
689064.747 181680.739 4.483125
689060.291 181672.774 4.613319
689061.554 181673.617 4.653686
689062.842 181674.422 4.690723
688530.6 182640.88 5.14018
688532.308 182640.625 5.144927
688265.639 183852.031 0.715555
688266.112 183851.041 0.958303
675969.737 179409.864 0.59312
675970.269 179410.123 0.595062
678780.889 180140.172 1.181107
678782.662 180140.69 1.193548
688746.136 184222.794 1.339828
678784.436 180141.208 1.205989
682797.352 180158.378 3.252993
690957.615 179302.851 1.696603
690964.647 179302.66 1.686678
688867.574 183933.7 3.889143
690957.6 179304.06 0.949739
688536.051 182640.07 3.001133
682798.189 180159.688 3.256752
682811.634 180156.153 4.863715
675977.318 179394.739 0.093005
675976.831 179397.11 0.540255
675977.172 179396.415 0.371672
688748.731 184224.488 2.322506
675977.853 179395.023 0.054507
675977.391 179397.366 0.529759
682798.021 180161.642 2.071803
690952.281 179305.508 0.870007
690959.453 179305.481 0.890002
687928.747 182296.476 5.827169
687927.988 182297.877 6.115647
674549.371 178009.007 2.638998
674553.867 178011.761 2.675416
688860.335 183936.023 2.29038
688504.564 182652.311 5.58075
688505.37 182649.82 6.106012
688505.646 182648.601 6.106012
688505.922 182647.383 6.106012
688500.667 182646.826 5.228184
688502.687 182646.524 5.147609
688504.686 182646.227 5.64181
688506.199 182646.165 6.106012
678776.571 180154.87 2.825454
682812.193 180148.04 4.789996
681907.927 179110.204 4.495931
681908.805 179108.716 4.817465
681909.658 179107.269 4.733206
676906.908 180064.615 2.730005
676907.785 180063.768 2.69867
678777.313 180152.638 2.387807
676908.661 180062.92 2.667334
676909.537 180062.073 2.635999
676910.277 180061.452 2.598867
681909.866 179102.966 4.241049
681910.758 179105.405 4.568075
681910.975 179105.036 3.894308
688501.401 182643.666 5.308693
688501.034 182645.246 5.268439
690096.221 179592.252 3.411687
689041.388 181666.79 3.294992
678778.535 180148.008 1.997937
690096.079 179593.487 3.34
688334.931 185360.467 5.391646
688338.449 185366.253 2.210004
688336.967 185366.204 2.486749
688337.426 185366.969 2.243008
688335.492 185366.161 2.617986
688335.948 185366.923 2.462
675977.513 179395.719 0.20309
681909.805 179111.025 4.892355
686972.438 181208.913 3.432455
688335.791 185361.891 5.26601
682794.55 180160.572 1.329012
688857.282 183937.004 1.783297
674558.009 178000.187 3.255129
688292.926 183822.807 3.720006
688282.838 183822.575 3.943816
688284.579 183823.696 3.956196
688287.858 183822.776 3.807151
688286.32 183824.816 3.968575
688289.611 183823.854 3.831911
688291.364 183824.932 3.856671
688322.833 185345.261 1.277507
688760.19 184219.641 3.159002
688756.181 184219.274 3.215331
688757.11 184219.862 3.227335
688755.819 184217.195 2.76143
688754.879 184218.46 2.975865
688758.038 184220.451 3.219339
688759.255 184221.215 3.253168
688752.366 184216.883 1.842263
688751.1 184216.088 1.401417
688749.795 184215.267 1.035539
688748.463 184214.426 0.878011
687930.011 182297.065 5.691112
687931.275 182297.653 5.555054
687932.539 182298.242 5.418997
687933.584 182298.679 5.343719
687934.628 182299.115 5.268441
685641.785 180460.741 2.953906
678778.974 180140.699 1.742244
686971.178 181215.318 4.269098
690095.211 179600.879 3.062728
690095.055 179602.226 3.046552
690096.56 179598.082 3.08
690096.408 179599.386 3.076334
690096.255 179600.69 3.076559
688744.79 184221.919 1.013553
688747.445 184223.65 1.748049
688743.424 184221.037 0.800009
690098.236 179596.458 3.167984
688749.226 184226.476 2.829768
688750.036 184225.333 2.85737
688750.568 184227.348 3.198484
688751.425 184227.913 3.218981
688752.281 184228.478 3.219478
688753.337 184229.051 3.261007
688754.779 184230.033 3.723512
682801.094 180157.762 5.013492
688754.618 184231.78 4.308015
688755.557 184230.684 4.312013
678779.973 180143.427 1.792614
686629.569 180248.965 0.639999
686630.354 180247.913 0.756668
688867.344 183932.416 3.887771
685639.65 180459.715 4.181791
682802.908 180160.322 4.966495
686959.95 181210.855 4.817404
686959.822 181212.713 4.411315
686955.154 181213.52 4.389731
686955.422 181215.017 4.341207
686955.757 181214.955 4.428167
686957.911 181214.582 4.411474
686960.065 181214.209 4.394781
686955.381 181216.575 4.211019
688685.088 184340.68 3.436
688683.327 184340.924 2.908004
688684.621 184341.629 3.416933
688679.471 184340.047 0.916561
688680.6 184340.656 1.57333
688678.343 184339.437 0.259792
688681.728 184341.266 2.230099
688871.514 183932.431 5.404309
688682.856 184341.875 2.886868
688684.128 184342.567 3.365107
690099.284 179574.189 2.743368
688685.702 184343.418 3.843306
688687.119 184344.167 3.804188
688890.439 183923.795 3.507
686630.176 180249.363 0.930377
688890.052 183926.413 3.697055
688891.197 183924.831 3.072002
688691.257 184349.89 3.664125
688690.325 184348.275 3.592484
688691.747 184349.011 3.597903
688690.842 184347.354 3.625179
688688.532 184344.924 3.757436
688689.941 184345.686 3.70425
688691.359 184346.435 3.674101
688496.242 182653.611 3.757418
688856.947 183937.105 0.583309
678780.793 180140.654 1.457311
678782.541 180141.132 1.459168
678784.289 180141.61 1.461024
687927.271 182299.209 6.04933
687929.371 182298.58 5.824291
679332.141 180272.844 2.399596
688678.049 184339.284 1.99999999495e-06
688270.995 183838.941 3.840007
688271.308 183838.583 4.001597
688270.101 183840.377 3.483501
673263.85 178516.027 2.176001
673263.238 178516.344 2.176001
673262.627 178516.661 2.176001
688269.303 183841.714 3.246121
